# .PCD v0.7 - Point Cloud Data file format
VERSION 0.7
FIELDS x y z
SIZE 4 4 4
TYPE F F F
COUNT 1 1 1
WIDTH 166
HEIGHT 1
VIEWPOINT 0 0 0 1 0 0 0
POINTS 166
DATA ascii
-0.048485696 -0.5180096 1.527
-0.067382865 -0.66184008 1.539
-0.061560001 -0.64051718 1.539
-0.055697143 -0.64051718 1.539
-0.060094286 -0.63465434 1.539
-0.053864997 -0.63428789 1.539
-0.047391426 -0.63270003 1.539
-0.060094286 -0.62586004 1.539
-0.054231428 -0.6258601 1.539
-0.045279369 -0.62364596 1.5335555
-0.039394289 -0.62155432 1.5319999
-0.054524563 -0.6164794 1.5389999
-0.045097921 -0.6149767 1.5364544
-0.038242728 -0.61376709 1.536
-0.042505719 -0.60827142 1.539
-0.067422852 -0.58188862 1.539
-0.071820013 -0.57016289 1.539
-0.06693428 -0.57407141 1.539
-0.053645141 -0.57133543 1.539
-0.045070715 -0.57382715 1.539
-0.038401719 -0.576612 1.539
-0.026382856 -0.57162857 1.539
-0.072797149 -0.56625432 1.539
-0.065370858 -0.56459314 1.5389999
-0.053393874 -0.56471878 1.5390002
-0.026382856 -0.56576574 1.539
-0.075484291 -0.55404001 1.539
-0.064891167 -0.55523926 1.5389999
-0.055697143 -0.55697143 1.539
-0.082446434 -0.54597861 1.539
-0.074751437 -0.544846 1.5389999
-0.066934288 -0.5467115 1.539
-0.043971427 -0.54231429 1.539
-0.035140477 -0.54389453 1.53725
-0.02784857 -0.54671139 1.539
-0.080614291 -0.53791708 1.539
-0.074751437 -0.5364514 1.539
-0.068888567 -0.5364514 1.539
-0.03465195 -0.53538233 1.5332726
-0.02772191 -0.53401148 1.5319999
-0.035047147 -0.52857637 1.5331665
-0.073619053 -0.64637518 1.546
-0.066625245 -0.64343047 1.546
-0.057422861 -0.64048582 1.546
-0.072146669 -0.63459623 1.546
-0.066257149 -0.63459623 1.546
-0.072146669 -0.62576193 1.546
-0.065668195 -0.62546742 1.5459999
-0.07382939 -0.61566556 1.5460001
-0.064784765 -0.61545533 1.5459998
-0.053889148 -0.612216 1.546
-0.047606993 -0.61201972 1.546
-0.036809523 -0.61103809 1.546
-0.062821589 -0.60416698 1.546
-0.054478101 -0.60514855 1.546
-0.046821721 -0.60632646 1.546
-0.03975429 -0.60809338 1.546
-0.073619053 -0.59042478 1.546
-0.066911541 -0.59565997 1.546
-0.055459689 -0.59827751 1.546
-0.024842862 -0.595002 1.546
-0.072146669 -0.58748013 1.546
-0.063803181 -0.58453524 1.546
-0.055459689 -0.58355361 1.546
-0.047116198 -0.58159047 1.546
-0.061545528 -0.57628995 1.546
-0.055214293 -0.57790959 1.546
-0.045643814 -0.575701 1.546
-0.034355555 -0.57619172 1.546
-0.074600637 -0.56294036 1.546
-0.060367629 -0.56392193 1.546
-0.055950481 -0.56318575 1.546
-0.045911517 -0.56579596 1.5459999
-0.03828191 -0.56833911 1.546
-0.026502861 -0.56097722 1.546
-0.074109845 -0.55508763 1.546
-0.063312382 -0.55214292 1.546
-0.054110005 -0.55471957 1.546
-0.046011906 -0.55471957 1.546
-0.034355555 -0.55312449 1.546
-0.027975241 -0.55508763 1.546
-0.063312389 -0.54478091 1.5459999
-0.054478109 -0.54478103 1.5459999
-0.046380006 -0.54478097 1.546
-0.03975429 -0.54919809 1.546
-0.080980957 -0.53594673 1.546
-0.075091437 -0.53447431 1.546
-0.064048573 -0.5366829 1.546
-0.044465907 -0.53565222 1.546
-0.03975429 -0.53741908 1.546
-0.081347629 -0.64930189 1.553
-0.076088786 -0.64437175 1.553
-0.076276608 -0.63493401 1.5530001
-0.081347629 -0.62415814 1.553
-0.077206291 -0.62622875 1.553
-0.082333662 -0.61183274 1.553
-0.076276608 -0.61422735 1.5530001
-0.066557147 -0.6108467 1.553
-0.034018096 -0.6108467 1.553
-0.082826674 -0.60788858 1.553
-0.074445404 -0.6059165 1.553
-0.065817624 -0.60567003 1.553
-0.051766671 -0.6019724 1.553
-0.045850482 -0.60567003 1.553
-0.062489767 -0.59420741 1.553
-0.055569936 -0.59521103 1.5530001
-0.051766671 -0.58718193 1.553
-0.045850482 -0.58718193 1.553
-0.033426479 -0.57416642 1.553
-0.042892382 -0.56203818 1.553
-0.035074558 -0.56436241 1.5529997
-0.027115876 -0.56450319 1.553
-0.03845524 -0.55760098 1.553
-0.078389533 -0.53245723 1.553
-0.066557147 -0.53689432 1.553
-0.091035239 -0.6536628 1.567
-0.086171433 -0.65222859 1.5599999
-0.093222976 -0.64285368 1.5661252
-0.084944539 -0.64444858 1.5605382
-0.094020002 -0.63426191 1.5670002
-0.084363461 -0.63438439 1.5608749
-0.10387141 -0.62896293 1.569
-0.091550857 -0.62653446 1.5656
-0.085590892 -0.62546027 1.561
-0.091894604 -0.61742538 1.5646666
-0.08547271 -0.61550087 1.5623332
-0.079096191 -0.61038381 1.567
-0.04020429 -0.61050618 1.5634999
-0.034324761 -0.61336857 1.567
-0.076111436 -0.60441428 1.5670002
-0.045813218 -0.60414296 1.564375
-0.052000001 -0.59577149 1.5599999
-0.044671431 -0.59562248 1.5635
-0.040114291 -0.58982861 1.5599999
-0.10455859 -0.65433437 1.5740001
-0.095939063 -0.65508384 1.574
-0.1124286 -0.6445905 1.574
-0.10493336 -0.6445905 1.5739999
-0.096438736 -0.64608961 1.574
-0.1161076 -0.63849056 1.5719999
-0.10393399 -0.63559622 1.574
-0.097438097 -0.6310991 1.574
-0.095939055 -0.62660193 1.574
-0.040474288 -0.61011243 1.574
-0.035227619 -0.61086196 1.574
-0.073225692 -0.60316479 1.576
-0.041973334 -0.60561526 1.574
-0.035977144 -0.60711432 1.574
-0.12258 -0.66435337 1.589
-0.1163362 -0.66323847 1.5863333
-0.1059019 -0.6610086 1.581
-0.12258 -0.65224671 1.589
-0.11687502 -0.65611905 1.5845556
-0.1069057 -0.65498573 1.581
-0.12258 -0.64921999 1.589
-0.11774665 -0.64607239 1.585
-0.1144343 -0.63992858 1.581
-0.1028905 -0.63490951 1.581
-0.033205718 -0.61739528 1.585
-0.028753331 -0.61895341 1.589
-0.04065429 -0.60680288 1.581
-0.037642859 -0.60680288 1.581
-0.12464 -0.66271996 1.596
-0.12514667 -0.65714663 1.5960001
-0.031190481 -0.60857427 1.5990001
-0.12671331 -0.67020673 1.603
