# .PCD v0.7 - Point Cloud Data file format
VERSION 0.7
FIELDS x y z
SIZE 4 4 4
TYPE F F F
COUNT 1 1 1
WIDTH 1567
HEIGHT 1
VIEWPOINT 0 0 0 1 0 0 0
POINTS 1567
DATA ascii
-0.32571429 -0.38173711 1.368
-0.31731379 -0.3810395 1.3655
-0.30096 -0.38173711 1.368
-0.29444572 -0.38238853 1.368
-0.28524694 -0.38188362 1.3658572
-0.27490285 -0.38173711 1.368
-0.26494965 -0.38319832 1.3665714
-0.2574943 -0.38494334 1.3655
0.037782859 -0.38173711 1.368
0.044297144 -0.38173711 1.368
0.056022856 -0.38173711 1.368
0.069051422 -0.38173711 1.368
0.071657151 -0.38173711 1.368
0.09771429 -0.38173711 1.368
0.12637714 -0.38173711 1.368
0.15634285 -0.38173711 1.368
0.1640112 -0.38138831 1.36675
0.17197715 -0.38173711 1.368
0.20845714 -0.38173711 1.368
0.21542403 -0.38203973 1.36675
0.2271667 -0.38034189 1.363
0.45860571 -0.38173711 1.368
0.46511999 -0.38173711 1.368
0.47424003 -0.38173711 1.368
0.50681138 -0.38173711 1.368
0.51332569 -0.38173711 1.368
0.52765721 -0.38173711 1.368
0.55601746 -0.38120732 1.363
0.56207532 -0.38034189 1.363
0.58498287 -0.38173711 1.368
0.59410292 -0.38173711 1.368
0.65683615 -0.38034189 1.363
0.66551811 -0.38266808 1.3655
0.67506611 -0.38359833 1.368
0.6849975 -0.38310546 1.3652726
0.69608307 -0.38444203 1.364875
0.70354283 -0.38564569 1.368
0.72438854 -0.38173711 1.368
0.73560625 -0.38383201 1.3661819
0.74589509 -0.38531515 1.3664615
0.75348574 -0.38347426 1.368
-0.4374581 -0.37774569 1.363
-0.40111151 -0.37774569 1.363
-0.39462101 -0.37774569 1.363
-0.38423619 -0.37774569 1.363
-0.37514949 -0.37774572 1.363
-0.36606282 -0.37774569 1.363
-0.3554185 -0.37722644 1.363
-0.34607217 -0.37722644 1.363
-0.3349086 -0.37774569 1.363
-0.32474038 -0.37778074 1.365
-0.31284097 -0.37774572 1.363
-0.3050524 -0.37774572 1.363
-0.2972638 -0.37774572 1.363
-0.28558093 -0.37774569 1.363
-0.27441734 -0.37722644 1.363
-0.26682585 -0.37698436 1.364
0.035112858 -0.37714043 1.3655
0.043356381 -0.37722644 1.363
0.054520003 -0.37774569 1.363
0.06502381 -0.37714043 1.3655
0.075966254 -0.37722689 1.3651428
0.085831426 -0.37518972 1.3655
0.095701359 -0.37630948 1.3658571
0.1046216 -0.3774249 1.3658571
0.11440003 -0.37622303 1.365
0.12469093 -0.37711129 1.3638334
0.13524951 -0.37714043 1.3655
0.14565337 -0.37714046 1.3655
0.15637104 -0.3780579 1.3659999
0.16537735 -0.37670717 1.363
0.1739448 -0.37774569 1.363
0.18466045 -0.37714046 1.3655
0.19601239 -0.37514949 1.363
0.20460908 -0.37757313 1.3655
0.21558082 -0.37597176 1.3636249
0.22578876 -0.37581313 1.3638334
0.23408322 -0.37677351 1.367
0.41561142 -0.37261713 1.368
0.42519885 -0.37442836 1.367
0.4352555 -0.37501845 1.3665714
0.44499812 -0.3756277 1.3657777
0.45317879 -0.37726149 1.365
0.4673143 -0.37644759 1.363
0.47355822 -0.37702894 1.3644285
0.48560667 -0.37885427 1.367
0.49613199 -0.37722644 1.363
0.50522363 -0.37608925 1.3637143
0.51499331 -0.37843856 1.3655
0.52441925 -0.37726152 1.365
0.53460228 -0.37591723 1.3657777
0.54412955 -0.37517551 1.3646666
0.55394328 -0.3780579 1.3659999
0.56548154 -0.37630945 1.3658571
0.57546192 -0.37714046 1.3655
0.5841428 -0.37774569 1.363
0.59530646 -0.37722644 1.363
0.6052177 -0.37589988 1.3646666
0.61486375 -0.37558079 1.3655001
0.62406862 -0.37652573 1.368
0.63606673 -0.37514949 1.363
0.64373332 -0.37714046 1.3655
0.65164375 -0.37774569 1.363
0.66851902 -0.37774569 1.363
0.67544222 -0.37688029 1.363
0.68150002 -0.37774569 1.363
0.74900103 -0.37774569 1.363
0.75682366 -0.37750357 1.364
0.7619819 -0.37644759 1.363
0.2284648 -0.36995709 1.363
0.2323591 -0.36865899 1.363
0.41928479 -0.36865899 1.363
0.42484802 -0.36810264 1.363
0.4322657 -0.36995709 1.363
0.1229667 0.1495 1.3659999
0.4349972 -0.46042001 1.3759999
0.59373713 -0.43170288 1.3709999
0.1752467 -0.4220258 1.3759999
-0.77092671 -0.40582001 1.3789999
-0.76436001 -0.40188006 1.3789999
-0.75516677 -0.40188006 1.3789998
-0.74553561 -0.4005667 1.3790001
-0.73809326 -0.4005667 1.3789999
-0.70394671 -0.40122336 1.3789999
-0.69475335 -0.4005667 1.3789999
-0.67373997 -0.4005667 1.3790001
-0.66454667 -0.4005667 1.3789999
-0.6540401 -0.4005667 1.3789999
-0.6330266 -0.4005667 1.3789999
-0.62646002 -0.4005667 1.3790001
-0.59494001 -0.4005667 1.3789999
-0.76289719 -0.39911431 1.374
-0.75373715 -0.39518863 1.374
-0.74656433 -0.39554811 1.3752499
-0.73586082 -0.39586529 1.3748332
-0.72626573 -0.3943578 1.3756666
-0.71472037 -0.39712805 1.3779999
-0.702703 -0.39736953 1.374
-0.69394636 -0.39610574 1.3756666
-0.68597108 -0.39540252 1.3758749
-0.67522287 -0.39518863 1.3739998
-0.66737145 -0.39649719 1.374
-0.65428573 -0.39649719 1.374
-0.6446023 -0.39754406 1.374
-0.63549322 -0.39723909 1.3745553
-0.6249364 -0.39500168 1.3739998
-0.61487126 -0.3955031 1.3759997
-0.60441786 -0.39436099 1.3756665
-0.5951966 -0.39481103 1.3762221
-0.58612025 -0.39489502 1.37525
-0.57613146 -0.39502671 1.3779999
-0.56387722 -0.39623433 1.3782856
-0.55355686 -0.39483717 1.3773333
-0.54581314 -0.39264253 1.3770001
-0.53584003 -0.39268669 1.3789999
-0.52664667 -0.39268669 1.3790001
-0.51538575 -0.39264253 1.3769999
-0.50420779 -0.39299884 1.3761426
-0.49484858 -0.39299884 1.3761427
-0.486368 -0.39292729 1.378
-0.47674 -0.39268669 1.3790001
-0.46360669 -0.39006004 1.3790001
-0.45485112 -0.39006004 1.3790001
-0.43471336 -0.39006004 1.3790001
-0.42473203 -0.39058536 1.3789999
-0.41501337 -0.39203003 1.3789999
-0.40713334 -0.39137334 1.3789999
-0.39794001 -0.39006001 1.3789999
-0.38305557 -0.39093557 1.3790001
-0.37542573 -0.39156097 1.3789998
-0.36598226 -0.39093557 1.3789998
-0.29287341 -0.39006001 1.3789999
-0.28630671 -0.39006001 1.3789999
-0.27448666 -0.39006004 1.3790001
-0.2657311 -0.39093557 1.3790001
-0.25872669 -0.39268669 1.3789999
0.072233327 -0.39006001 1.3789999
0.12608001 -0.39006001 1.3789999
0.13001999 -0.39006001 1.3789999
0.14578 -0.39006001 1.3789999
0.15497333 -0.39006001 1.3789999
0.16547999 -0.39006001 1.3789999
0.17336001 -0.39006001 1.3789999
0.20750666 -0.39006001 1.3789999
0.21407335 -0.39006004 1.3790001
0.46754664 -0.39006001 1.3789999
0.47542664 -0.39006001 1.3789999
0.52927327 -0.39006001 1.3789999
0.53189999 -0.39006001 1.3789999
0.66586 -0.39006001 1.3789999
0.6750921 -0.39167407 1.3777499
0.68744743 -0.39264253 1.377
0.69480246 -0.39328814 1.3765
0.70379609 -0.39299884 1.3761427
0.71464688 -0.39173284 1.3782855
0.72439712 -0.39156097 1.3789998
0.7355994 -0.3932448 1.3778887
0.74548036 -0.39523339 1.3756666
0.75419194 -0.39455673 1.3748332
0.76392221 -0.39224896 1.3789998
0.77092671 -0.39006001 1.3789999
-0.52212 -0.38864571 1.374
-0.48024571 -0.38864571 1.374
-0.47501144 -0.38864574 1.374
-0.46846861 -0.38864571 1.374
-0.45579356 -0.38637981 1.3752499
-0.44477296 -0.38606709 1.3759999
-0.43523088 -0.38550514 1.374
-0.42528573 -0.38602862 1.374
-0.41350859 -0.38864571 1.374
-0.40487203 -0.38759884 1.374
-0.39475241 -0.38864574 1.374
-0.38472003 -0.38733715 1.374
-0.37478271 -0.38683298 1.375
-0.36510384 -0.38607675 1.3765
-0.35566056 -0.38606709 1.3759999
-0.34433949 -0.38629484 1.3765
-0.33525074 -0.38642794 1.37775
-0.32452574 -0.38472003 1.374
-0.31382015 -0.38530833 1.3754283
-0.30519748 -0.38609275 1.3773332
-0.29627764 -0.386731 1.3764999
-0.28316337 -0.386731 1.3764999
-0.2748 -0.38602859 1.374
0.02758 -0.38218001 1.3789999
0.032258477 -0.38424864 1.3770001
0.044491429 -0.38602859 1.374
0.054213911 -0.38578615 1.3749999
0.064935781 -0.38530833 1.3754284
0.075800195 -0.38529739 1.377
0.084722541 -0.38344195 1.3756666
0.093757018 -0.38381284 1.3754283
0.10487618 -0.38542247 1.3764999
0.11589674 -0.38513517 1.3761427
0.12492629 -0.38578612 1.375
0.13502811 -0.38542247 1.3765
0.14420477 -0.38542247 1.3764999
0.15381764 -0.38585863 1.3765
0.16488001 -0.38602859 1.374
0.1765424 -0.38585865 1.3765
0.18563867 -0.38346228 1.3768569
0.19453801 -0.38466758 1.3776361
0.20352358 -0.38509408 1.3764999
0.21329713 -0.38602862 1.374
0.22535536 -0.38570976 1.376857
0.23526914 -0.38582465 1.3769999
0.41660362 -0.38249022 1.3777499
0.42503402 -0.38380948 1.3762726
0.43497273 -0.38387969 1.3756665
0.44481605 -0.38268846 1.3754284
0.45368463 -0.38502029 1.376
0.46487713 -0.38630953 1.375
0.47501144 -0.38602862 1.374
0.4854894 -0.38550901 1.3761426
0.49453148 -0.38434163 1.3773333
0.503205 -0.38511455 1.3777499
0.51651287 -0.38607672 1.3764999
0.52521098 -0.38539839 1.3752499
0.5361796 -0.38542247 1.3765
0.54412532 -0.38295442 1.3758749
0.55392629 -0.38458535 1.376857
0.56922859 -0.38079429 1.374
0.57528079 -0.3830871 1.376857
0.58503872 -0.38565502 1.3773332
0.59355372 -0.38582465 1.3769999
0.60314357 -0.384417 1.37525
0.61504966 -0.3847599 1.3761427
0.62532437 -0.38280046 1.3765
0.63586652 -0.38303947 1.3778887
0.64426219 -0.38380361 1.37775
0.6533041 -0.38400421 1.378
0.66333717 -0.38738528 1.3764999
0.67740375 -0.38777336 1.374
0.68438292 -0.38864574 1.374
0.70793718 -0.38864571 1.374
0.71448004 -0.38537434 1.374
0.72451192 -0.38669887 1.3748332
0.73358518 -0.38759884 1.374
0.74457717 -0.38864571 1.374
0.75766295 -0.38602862 1.374
0.76476657 -0.38490698 1.3739998
0.02758 -0.37561333 1.3789999
0.030206671 -0.37692666 1.3790001
0.41407031 -0.37688211 1.375
0.4200514 -0.3781772 1.374
0.63334858 -0.3781772 1.374
0.2457457 0.013259999 1.376
0.22552291 0.095262855 1.3709999
0.098001912 0.15579811 1.374
0.12470667 0.17991431 1.372
0.22268669 0.20415711 1.3710001
0.01060286 -0.4194524 1.386
0.39611048 -0.41022 1.382
-0.76504767 -0.40494761 1.385
-0.75141758 -0.40406823 1.3849999
-0.74526197 -0.40494761 1.3849999
-0.73602867 -0.40230951 1.385
-0.71228576 -0.40362856 1.385
-0.70569056 -0.40494761 1.385
-0.69513816 -0.40230951 1.385
-0.68590486 -0.40230951 1.385
-0.6766715 -0.40494761 1.385
-0.66480005 -0.40494761 1.385
-0.65424764 -0.40494761 1.385
-0.64633334 -0.40494761 1.385
-0.63182378 -0.40494761 1.385
-0.62522858 -0.40362856 1.385
-0.61599529 -0.40230951 1.385
-0.60318172 -0.40381697 1.3850001
-0.59555 -0.40428808 1.385
-0.56719053 -0.40230951 1.385
-0.73339057 -0.39967149 1.385
-0.72679538 -0.39967147 1.3849999
-0.58565712 -0.39967149 1.385
-0.57510483 -0.39967149 1.385
-0.56059527 -0.39967149 1.385
-0.55356032 -0.39967147 1.3849999
-0.54608577 -0.39703339 1.385
-0.53421432 -0.39703339 1.385
-0.52498102 -0.39791277 1.3850001
-0.51486832 -0.39703336 1.3849999
-0.50519532 -0.39967147 1.3849999
-0.49991909 -0.39967149 1.385
-0.48936671 -0.39703339 1.385
-0.47353807 -0.39527464 1.3849999
-0.4643048 -0.39439529 1.385
-0.45507145 -0.39351591 1.3849999
-0.44583815 -0.39175719 1.385
-0.43528575 -0.39439529 1.385
-0.42492175 -0.39590281 1.3850001
-0.41418093 -0.39637387 1.385
-0.40494761 -0.39571434 1.385
-0.39571437 -0.39527467 1.3850001
-0.38516194 -0.39571434 1.385
-0.37460956 -0.39703339 1.385
-0.3627381 -0.39351591 1.3849999
-0.35482383 -0.39175716 1.3849999
-0.34690955 -0.39175716 1.3849999
-0.3231667 -0.39175716 1.3849999
-0.31525239 -0.39175716 1.3849999
-0.30601904 -0.39175719 1.385
-0.29590634 -0.39175716 1.3849999
-0.28447464 -0.39263654 1.3849999
-0.27172384 -0.39439529 1.385
-0.26512861 -0.39439529 1.385
0.034295242 -0.39175719 1.385
0.044847623 -0.39175719 1.385
0.055400006 -0.39175719 1.385
0.06595239 -0.39175719 1.385
0.076504767 -0.39175719 1.385
0.084419057 -0.39175719 1.385
0.094971433 -0.39175719 1.385
0.1015667 -0.39175719 1.385
0.12399045 -0.39307624 1.385
0.13510814 -0.39326471 1.3850001
0.14465557 -0.39351594 1.3850001
0.15564765 -0.39439529 1.385
0.16488099 -0.39439526 1.3849999
0.17490575 -0.39386767 1.385
0.18268807 -0.39241672 1.385
0.19521905 -0.39175719 1.385
0.20550764 -0.39334005 1.385
0.2150048 -0.39439526 1.3849999
0.22423816 -0.39263657 1.3850001
0.23422517 -0.39288783 1.3850001
0.42781115 -0.39263654 1.3849999
0.43528575 -0.39175719 1.385
0.441881 -0.39175719 1.385
0.4643048 -0.39175719 1.385
0.47617617 -0.39439526 1.3849999
0.48540956 -0.39241672 1.385
0.50651437 -0.39175719 1.385
0.51574773 -0.39175719 1.385
0.52893817 -0.39175719 1.385
0.53817147 -0.39175719 1.385
0.54344767 -0.39175719 1.385
0.58961427 -0.39175719 1.385
0.59225237 -0.39175719 1.385
0.62654763 -0.39175716 1.3849999
0.63578093 -0.39175719 1.385
0.64501429 -0.39175716 1.3849999
0.65424764 -0.39175719 1.385
0.6661191 -0.39263654 1.3849999
0.67491269 -0.39527464 1.3849999
0.6832667 -0.39571434 1.385
0.7083286 -0.39703339 1.385
0.71492386 -0.39835244 1.385
0.72521245 -0.39756101 1.385
0.73470956 -0.39791274 1.3849999
0.74394298 -0.39967149 1.385
0.76724607 -0.39703336 1.3849999
0.77296197 -0.39439529 1.385
-0.331081 -0.38911909 1.385
-0.3284429 -0.38911909 1.385
0.02619252 -0.38535041 1.3850001
0.034734923 -0.38911906 1.3849999
0.07782381 -0.38911909 1.385
0.0857381 -0.38911906 1.3849999
0.092333347 -0.38911909 1.385
0.112119 -0.38911909 1.385
0.18730475 -0.38911909 1.385
0.41681904 -0.38780004 1.385
0.42209524 -0.38911909 1.385
0.44715723 -0.38911906 1.3849999
0.45507151 -0.38911909 1.385
0.46034771 -0.38911909 1.385
0.49728099 -0.38911906 1.3849999
0.50387627 -0.38911909 1.385
0.51179051 -0.38911909 1.385
0.54740483 -0.38911909 1.385
0.55268097 -0.38911906 1.3849999
0.56587148 -0.38911909 1.385
0.57466513 -0.38911906 1.3849999
0.58301908 -0.38911909 1.385
0.60544288 -0.38911909 1.385
0.61335719 -0.38911906 1.3849999
0.62654763 -0.38911906 1.3849999
0.63578093 -0.38911909 1.385
0.64501429 -0.38911906 1.3849999
0.65424764 -0.38911909 1.385
0.6608429 -0.38911909 1.385
0.23948669 0.026891427 1.387
0.1932943 0.055939998 1.386
0.19346189 0.065820001 1.386
0.26512858 0.063093327 1.383
0.1776619 0.071357138 1.3839999
0.1494095 0.1475914 1.382
0.099379048 0.17164858 1.382
-0.7804305 -0.41348189 1.396
-0.77444762 -0.41281718 1.396
-0.76580572 -0.41348189 1.396
-0.75516951 -0.41348189 1.396
-0.74453336 -0.4108229 1.396
-0.73522669 -0.4108229 1.396
-0.72591996 -0.4108229 1.396
-0.71448606 -0.41188651 1.396
-0.7044577 -0.41196248 1.396
-0.69489783 -0.41170922 1.396
-0.68603432 -0.4108229 1.396
-0.66520506 -0.4108229 1.396
-0.65439159 -0.41241828 1.396
-0.64535081 -0.41241831 1.396
-0.63414097 -0.41259336 1.393
-0.62620574 -0.4108229 1.396
-0.60360384 -0.41348189 1.396
-0.59695619 -0.41170922 1.396
-0.58100188 -0.4108229 1.396
0.2957857 -0.4153972 1.392
-0.77310491 -0.4090572 1.39
-0.76383811 -0.40905723 1.39
-0.75457144 -0.4090572 1.39
-0.74353975 -0.40729213 1.39
-0.73444194 -0.40611181 1.3920001
-0.72529602 -0.40574223 1.3922501
-0.71529847 -0.40640959 1.39
-0.70161903 -0.40640959 1.39
-0.69499999 -0.40640959 1.39
-0.68573344 -0.40640959 1.39
-0.67540765 -0.40799814 1.39
-0.66764122 -0.40729213 1.39
-0.6460191 -0.40773341 1.39
-0.63631111 -0.40817463 1.39
-0.62483811 -0.4070715 1.39
-0.61512983 -0.40581945 1.3909999
-0.60586351 -0.40817466 1.39
-0.59391624 -0.40655115 1.3920001
-0.5850572 -0.40496859 1.393
-0.57631963 -0.40552273 1.3924
-0.56423432 -0.40492389 1.3940001
-0.55513954 -0.40506911 1.3945
-0.54554933 -0.40352595 1.3937501
-0.53464383 -0.40330952 1.3930001
-0.52327579 -0.40340003 1.3924
-0.51547235 -0.40400299 1.3934287
-0.50568116 -0.40526861 1.3925714
-0.4947916 -0.40321675 1.3936001
-0.48461145 -0.40351048 1.396
-0.47617015 -0.4035981 1.3940001
-0.46570507 -0.40311074 1.3942858
-0.45336762 -0.40284571 1.396
-0.44326323 -0.40231389 1.396
-0.43381998 -0.40330955 1.393
-0.42523128 -0.40362313 1.3934286
-0.41630095 -0.40199241 1.3911999
-0.40507087 -0.40242317 1.393
-0.3951062 -0.40307763 1.3945
-0.38656121 -0.40356308 1.3947999
-0.37836766 -0.40226856 1.3940001
-0.36428952 -0.40018669 1.396
-0.35498288 -0.40018669 1.396
-0.34647393 -0.40071851 1.396
-0.33769906 -0.40018669 1.396
-0.32440382 -0.40018669 1.396
-0.31509718 -0.40018669 1.396
-0.30712 -0.40018669 1.396
-0.27521145 -0.40018669 1.396
0.031908575 -0.40018669 1.396
0.045646984 -0.40195939 1.396
0.055840001 -0.40218094 1.396
0.063817143 -0.40018669 1.396
0.075782858 -0.40018669 1.396
0.086419046 -0.40018669 1.396
0.094839364 -0.40107307 1.396
0.1023733 -0.40018669 1.396
0.1289638 -0.40018669 1.396
0.1342819 -0.40018669 1.396
0.15555428 -0.40284571 1.396
0.16486095 -0.40284571 1.396
0.17948569 -0.40018669 1.396
0.18480383 -0.40018669 1.396
0.1914514 -0.40018669 1.396
0.20164442 -0.40461841 1.396
0.2140533 -0.40018669 1.396
0.22601905 -0.40018669 1.396
0.23479393 -0.4017821 1.396
0.24197334 -0.4015162 1.396
0.42943621 -0.40018669 1.396
0.43475428 -0.40107301 1.396
0.44450411 -0.40018669 1.396
0.46799242 -0.40018669 1.396
0.47596952 -0.40284571 1.396
0.48527622 -0.4015162 1.396
0.49192387 -0.40018669 1.396
0.50787818 -0.40018669 1.396
0.51186669 -0.40018669 1.396
0.5364629 -0.40085143 1.396
0.54510474 -0.40018669 1.396
0.58764958 -0.40018669 1.396
0.59543669 -0.40170616 1.396
0.6022743 -0.40018669 1.396
0.62576252 -0.40107307 1.396
0.63506919 -0.40018669 1.396
0.64481902 -0.40018669 1.396
0.65545517 -0.40018669 1.396
0.66875052 -0.40018669 1.396
0.67273903 -0.40018669 1.396
0.6820457 -0.40284571 1.396
0.69401145 -0.40284571 1.396
0.70445716 -0.40297431 1.393
0.71485722 -0.40243816 1.39
0.72552854 -0.40362313 1.3934286
0.73497051 -0.40330955 1.393
0.74306715 -0.40440717 1.3945
0.75561267 -0.40550479 1.396
0.76638424 -0.40451053 1.3925714
0.77497792 -0.4046267 1.3947999
0.7804305 -0.40417525 1.396
-0.54276192 -0.39846671 1.39
-0.53614283 -0.39846671 1.39
-0.48319051 -0.39846671 1.39
-0.47392386 -0.39846671 1.39
-0.46598095 -0.39846671 1.39
-0.45565528 -0.39740765 1.39
-0.44479999 -0.39648098 1.39
-0.43553337 -0.39846671 1.39
-0.41170481 -0.39846671 1.39
-0.40243816 -0.39846671 1.39
-0.39184761 -0.39846671 1.39
-0.38787621 -0.39846671 1.39
-0.36581275 -0.39758417 1.39
-0.35478097 -0.3958191 1.39
-0.34355462 -0.39522126 1.3909999
-0.33564666 -0.3953495 1.393
-0.32565716 -0.39515716 1.39
-0.3150667 -0.3958191 1.39
-0.3044762 -0.3958191 1.39
-0.29520956 -0.3958191 1.39
-0.28461906 -0.3958191 1.39
-0.278 -0.3958191 1.39
-0.26873341 -0.3958191 1.39
0.015626661 -0.39210001 1.3909999
0.024803536 -0.39441603 1.3917143
0.034419052 -0.3958191 1.39
0.045576874 -0.39695379 1.3900001
0.056167345 -0.39695379 1.3900001
0.06496381 -0.39638862 1.3920001
0.07429333 -0.39667335 1.393
0.084900953 -0.39667335 1.393
0.095314294 -0.3958191 1.39
0.10598192 -0.39478001 1.3909999
0.11469579 -0.39566067 1.3934286
0.1223162 -0.39752761 1.396
0.13546987 -0.39846671 1.39
0.14561905 -0.39846671 1.39
0.15488569 -0.39846671 1.39
0.16415238 -0.39846671 1.39
0.17341907 -0.39846671 1.39
0.18731907 -0.39515719 1.39
0.19649114 -0.39695379 1.3900001
0.2045286 -0.3978048 1.39
0.21489842 -0.39846671 1.39
0.22504763 -0.39714289 1.39
0.2356381 -0.39714289 1.39
0.24225719 -0.39449525 1.39
0.4196476 -0.3931714 1.39
0.42453051 -0.39579079 1.393
0.43420956 -0.39648101 1.39
0.44544536 -0.39510173 1.3911999
0.45504385 -0.39534947 1.3930001
0.46587017 -0.39610386 1.3909999
0.47458574 -0.3978048 1.39
0.48451433 -0.39714292 1.39
0.49581718 -0.39506474 1.3920001
0.50461036 -0.39555076 1.3917143
0.51576608 -0.39578512 1.3936
0.52491587 -0.39490637 1.393
0.53395122 -0.39616078 1.3911999
0.54620391 -0.39528954 1.39
0.55645883 -0.39503834 1.3925714
0.56423813 -0.3951892 1.3940001
0.5751844 -0.39399964 1.3947999
0.58494461 -0.39472654 1.3913335
0.59614378 -0.39566255 1.3909999
0.60495716 -0.3953495 1.393
0.6140545 -0.39503834 1.3925714
0.623981 -0.39607552 1.3940001
0.63574022 -0.39684421 1.3936
0.6460191 -0.3958191 1.39
0.6539619 -0.3958191 1.39
0.66417903 -0.39594734 1.3920001
0.6764667 -0.39846671 1.39
0.6870572 -0.39846671 1.39
0.69235241 -0.39846671 1.39
0.77575243 -0.39846671 1.39
0.02250476 -0.3852286 1.39
0.25358671 0.0038761911 1.39
0.29242858 0.064439997 1.3989999
0.21977329 0.08986 1.396
0.2182657 0.18094572 1.396
0.1677143 0.210419 1.3939999
0.191339 0.22889429 1.391
0.23363239 0.2381629 1.391
0.2191505 0.25734481 1.397
-0.77854002 -0.43013999 1.4069999
-0.78336406 -0.42424402 1.4069999
-0.77618301 -0.42325252 1.4063749
-0.76514006 -0.4240143 1.4069998
-0.75977999 -0.42478001 1.4069999
-0.70752001 -0.42210001 1.4069999
-0.67133999 -0.42210001 1.4069999
-0.66463995 -0.42210001 1.4069999
-0.65579599 -0.42370802 1.4069999
-0.64722002 -0.42344004 1.4069999
-0.78244954 -0.4179295 1.402
-0.77443814 -0.4179295 1.402
-0.76509142 -0.4179295 1.402
-0.75485653 -0.41798127 1.4036666
-0.7450515 -0.41733956 1.4044998
-0.73435056 -0.41733956 1.4045
-0.72553259 -0.41692343 1.404
-0.71648884 -0.41739541 1.402
-0.70497566 -0.41773283 1.4028333
-0.69393355 -0.41668361 1.405
-0.68742001 -0.41674 1.4069999
-0.67504781 -0.41644779 1.4044999
-0.66550231 -0.41648564 1.4038751
-0.65484643 -0.41830215 1.40325
-0.6456899 -0.41842636 1.4036666
-0.63491923 -0.41822967 1.4045
-0.62462056 -0.41641754 1.405
-0.61491567 -0.41448706 1.403
-0.6021924 -0.41525909 1.402
-0.59425527 -0.41535619 1.4053332
-0.58542973 -0.41466427 1.4045
-0.57516903 -0.41198429 1.4045
-0.56547999 -0.41137999 1.4069999
-0.55610001 -0.41406 1.4069999
-0.54404002 -0.41205001 1.4069999
-0.53465998 -0.41540003 1.4069999
-0.52528 -0.41406 1.4069999
-0.51529211 -0.41356954 1.4053334
-0.5060665 -0.41369215 1.4057499
-0.49312001 -0.41137999 1.4069999
-0.48642001 -0.41137999 1.4069999
-0.47301999 -0.41205001 1.4069999
-0.46565002 -0.41338998 1.4069999
-0.45519406 -0.41302213 1.4057499
-0.44354001 -0.41137996 1.4069999
-0.43684 -0.41137999 1.4069999
-0.41540003 -0.41204998 1.4069999
-0.40602002 -0.41137996 1.4069999
-0.39664 -0.41137999 1.4069999
-0.38547334 -0.41137996 1.4069999
-0.37922001 -0.41137999 1.4069999
-0.35376 -0.41137999 1.4069999
-0.34571999 -0.41137999 1.4069999
-0.33433002 -0.41205001 1.4069999
-0.32427999 -0.41137999 1.4069999
-0.31490001 -0.41137996 1.4069999
-0.30686 -0.41137999 1.4069999
0.19966 -0.41137999 1.4069999
0.20234001 -0.41137999 1.4069999
0.23896666 -0.41227332 1.4069999
0.24432667 -0.41316667 1.4069999
0.60434002 -0.41137996 1.4069999
0.70483994 -0.41137999 1.4069999
0.72762001 -0.41137999 1.4069999
0.73834002 -0.41406 1.4069999
0.7454896 -0.41356954 1.4053332
0.75471652 -0.41611421 1.4058888
0.76380002 -0.41137999 1.4069999
0.77496672 -0.41406 1.4069999
0.78256005 -0.41406 1.4069999
-0.59284568 -0.4099181 1.402
-0.57415235 -0.4099181 1.402
-0.55412382 -0.4099181 1.402
-0.54878289 -0.4099181 1.402
-0.53409529 -0.4099181 1.402
-0.52474862 -0.4099181 1.402
-0.51807249 -0.4099181 1.402
-0.50471997 -0.4099181 1.402
-0.49403813 -0.40858287 1.402
-0.48602664 -0.40858287 1.402
-0.47668001 -0.40902793 1.402
-0.46386176 -0.40831581 1.402
-0.45598382 -0.4092505 1.402
-0.44783893 -0.40617943 1.402
-0.43128189 -0.4099181 1.402
-0.42460573 -0.4099181 1.402
-0.41525909 -0.40724763 1.402
-0.4059124 -0.40791523 1.402
-0.39523053 -0.40858284 1.402
-0.38454857 -0.40791523 1.402
-0.37453094 -0.40708366 1.4045
-0.36464459 -0.40597537 1.4047778
-0.35487884 -0.40676039 1.404
-0.34510574 -0.40663859 1.4044999
-0.33540738 -0.40563598 1.4045
-0.32579812 -0.40591243 1.402
-0.31553584 -0.40645707 1.4038751
-0.30454972 -0.40598077 1.405
-0.29502028 -0.40558997 1.4055001
-0.28504947 -0.40549877 1.4051818
-0.27490517 -0.40557978 1.404143
-0.2653555 -0.40366954 1.4041426
-0.24254 -0.40735999 1.4069999
-0.23986 -0.40735999 1.4069999
-0.042815201 -0.40290001 1.405
-0.0028371401 -0.40539721 1.406
0.02582857 -0.40504953 1.4062856
0.035359181 -0.40502149 1.404857
0.045231044 -0.40705091 1.405
0.054223575 -0.40766931 1.4057499
0.064688891 -0.40598729 1.4053334
0.074734971 -0.40425715 1.404857
0.085145615 -0.40611282 1.4042222
0.0957231 -0.40766931 1.4057499
0.10455157 -0.40502149 1.404857
0.11524 -0.40467998 1.4069998
0.1259089 -0.40508309 1.4047778
0.13526143 -0.40711951 1.4061667
0.14452536 -0.40681896 1.4051249
0.154636 -0.40816396 1.4069999
0.16442637 -0.40595147 1.4036666
0.17570172 -0.40622631 1.404
0.18459143 -0.40663859 1.4044999
0.19529238 -0.40663862 1.4045
0.20706734 -0.40745515 1.4027141
0.21435288 -0.40730622 1.4045
0.22485431 -0.40634415 1.404143
0.23526892 -0.40671355 1.402
0.2443486 -0.4072476 1.402
0.42594099 -0.4019067 1.402
0.43483403 -0.40655023 1.404857
0.44495538 -0.40648514 1.4051249
0.4554784 -0.40425712 1.404857
0.46459892 -0.40396178 1.4045
0.4734177 -0.40758497 1.405
0.48464549 -0.40766931 1.40575
0.49491906 -0.40463096 1.4045
0.50528502 -0.40463215 1.4045
0.51521015 -0.40581632 1.4051249
0.52465779 -0.40420222 1.4053332
0.53415185 -0.40440682 1.4045
0.5458194 -0.40622634 1.4039999
0.55563182 -0.40464002 1.404857
0.56548029 -0.40238449 1.4036666
0.57418996 -0.40267 1.4069999
0.58487099 -0.40429598 1.4045
0.59408587 -0.40704462 1.4028333
0.60626173 -0.40569028 1.404
0.61457402 -0.40366957 1.404143
0.62450653 -0.40557837 1.4041427
0.6357587 -0.40540177 1.403
0.64639002 -0.40667284 1.4061667
0.65537554 -0.40509555 1.4053334
0.66433048 -0.40448964 1.4047776
0.67525333 -0.40515432 1.404
0.68497717 -0.4045772 1.402
0.6949417 -0.40560788 1.40325
0.70416856 -0.40860623 1.403
0.71646428 -0.40914035 1.403
0.72503436 -0.4099181 1.402
0.73438096 -0.4099181 1.402
0.74506295 -0.4099181 1.402
0.75374192 -0.40858287 1.402
0.76642668 -0.4099181 1.402
0.77443814 -0.4099181 1.402
0.78445244 -0.40925047 1.402
-0.33247429 -0.3992362 1.402
-0.26037139 -0.3992362 1.402
0.46599811 -0.3992362 1.402
0.52741909 -0.3992362 1.402
0.56747621 -0.3992362 1.402
0.57548761 -0.3992362 1.402
0.58216381 -0.3992362 1.402
0.61821532 -0.3992362 1.402
-0.0430343 -0.3719067 1.402
-0.0014571398 -0.033580959 1.401
0.1795029 0.027597141 1.406
0.22837999 0.046513326 1.402
-0.081677198 0.095766671 1.408
0.16190669 0.13630477 1.402
0.12032286 0.1475067 1.4069999
0.1793267 0.1721772 1.402
0.19572571 0.17914291 1.4089999
0.1753238 0.1873029 1.4069999
0.1405714 0.21366 1.401
0.16582857 0.21354 1.4069999
0.18639526 0.23471141 1.405
-0.79328859 -0.43380859 1.419
-0.78589714 -0.43197429 1.413
-0.71490568 -0.4311057 1.419
-0.67301142 -0.4311057 1.419
-0.66355145 -0.4311057 1.419
-0.78903717 -0.42838576 1.413
-0.77513152 -0.42838576 1.413
-0.76274997 -0.42660141 1.4175
-0.75460637 -0.42516059 1.4154
-0.74507719 -0.42390001 1.413
-0.73476005 -0.42390001 1.413
-0.7247833 -0.42647308 1.4164286
-0.71625769 -0.42533883 1.4142001
-0.70525151 -0.42539907 1.415
-0.69642341 -0.4228223 1.4166
-0.68445003 -0.42457712 1.4175
-0.67698908 -0.42608854 1.4164286
-0.66561776 -0.42641544 1.4142001
-0.65269047 -0.42540094 1.415
-0.64281052 -0.42449999 1.415
-0.63450146 -0.42524999 1.4175
-0.62482953 -0.42330191 1.4169999
-0.61494291 -0.42210284 1.416
-0.60508484 -0.42180476 1.415
-0.59480572 -0.42120859 1.413
-0.58797425 -0.42210284 1.416
-0.57705998 -0.42029431 1.419
-0.56489718 -0.4216457 1.419
-0.55408573 -0.42232138 1.419
-0.54404998 -0.42390144 1.4175
-0.5350979 -0.42289144 1.4152501
-0.52503002 -0.4216457 1.419
-0.51489425 -0.4216457 1.419
-0.50678569 -0.42029431 1.419
-0.49056849 -0.42029431 1.419
-0.4846223 -0.42137542 1.419
-0.47570285 -0.42299709 1.419
-0.46759433 -0.42299709 1.419
-0.45453048 -0.42029431 1.419
-0.4459714 -0.42029431 1.419
-0.43651143 -0.42029431 1.419
-0.42029431 -0.42029431 1.419
-0.41488853 -0.42029431 1.419
-0.40542859 -0.42029431 1.419
-0.39461714 -0.42029431 1.419
-0.38650855 -0.42029431 1.419
-0.35001999 -0.42029431 1.419
-0.3446143 -0.42029431 1.419
-0.33515429 -0.42029431 1.419
-0.32407263 -0.42083487 1.419
-0.31488287 -0.42029431 1.419
-0.30947721 -0.42029431 1.419
-0.28380001 -0.42029431 1.419
0.2473114 -0.42029431 1.419
0.25136572 -0.42029431 1.419
0.70950001 -0.42029431 1.419
0.71220279 -0.42029431 1.419
0.72481614 -0.42029431 1.419
0.73517716 -0.42029431 1.419
0.7465443 -0.42119858 1.4175
0.75393146 -0.42465147 1.4169999
0.76410145 -0.42254716 1.4175
0.77572 -0.42029431 1.419
0.78788292 -0.42029431 1.419
0.79328853 -0.42029431 1.419
-0.68631428 -0.4185172 1.413
-0.5813486 -0.41717151 1.413
-0.57387865 -0.41626722 1.4145
-0.56318146 -0.41649866 1.413
-0.55353719 -0.41717148 1.413
-0.54555267 -0.41744065 1.413
-0.5315572 -0.4185172 1.413
-0.52752006 -0.4185172 1.413
-0.51540858 -0.4185172 1.413
-0.50195152 -0.41582581 1.413
-0.49574715 -0.41626722 1.4145
-0.48445717 -0.41582581 1.413
-0.47557545 -0.41744065 1.413
-0.46561718 -0.4185172 1.413
-0.45446572 -0.41670859 1.416
-0.44455287 -0.41626722 1.4145
-0.43466577 -0.41582581 1.413
-0.42524576 -0.41582581 1.413
-0.41492864 -0.41582581 1.413
-0.40506005 -0.41582581 1.413
-0.39564002 -0.41582581 1.413
-0.38527858 -0.41626722 1.4145
-0.3753686 -0.41504452 1.4155715
-0.36385337 -0.41417143 1.415
-0.35602289 -0.41603571 1.416
-0.34450287 -0.41582581 1.413
-0.33598003 -0.41492864 1.413
-0.32566288 -0.41582581 1.413
-0.31435376 -0.41564065 1.4142001
-0.30410573 -0.41542897 1.4155715
-0.29524776 -0.41466001 1.4155715
-0.28529143 -0.41448006 1.413
-0.27468455 -0.41472968 1.4166
-0.26614574 -0.41389573 1.41675
-0.25271714 -0.4121857 1.419
-0.2473114 -0.4121857 1.419
0.025071427 -0.41275945 1.4154
0.035265714 -0.41298333 1.4164286
0.04383 -0.4133386 1.416
0.055288572 -0.41468716 1.416
0.06524229 -0.41437882 1.4153999
0.075950801 -0.41301811 1.4156666
0.085016191 -0.41430381 1.4169999
0.094200008 -0.41313431 1.413
0.10620215 -0.41334 1.416
0.11530142 -0.41300359 1.4159999
0.12352448 -0.4137539 1.4164286
0.13462327 -0.41504449 1.4155713
0.14460286 -0.41488859 1.419
0.15406285 -0.41488859 1.419
0.16519143 -0.41252956 1.414
0.17429711 -0.41282192 1.415
0.18609715 -0.41401145 1.416
0.19595714 -0.41488859 1.419
0.21800569 -0.41313431 1.413
0.22544999 -0.41377717 1.4175
0.23400123 -0.41542897 1.4155715
0.24447148 -0.41672289 1.413
0.25150716 -0.41469002 1.416
0.42840281 -0.4121857 1.419
0.43452287 -0.41345888 1.4178001
0.44336286 -0.41371906 1.415
0.45491335 -0.41266572 1.416
0.46525431 -0.41266572 1.4159999
0.47541758 -0.41529509 1.4164286
0.48448285 -0.41430381 1.4169999
0.49572 -0.41250572 1.4169999
0.50509512 -0.41298333 1.4164286
0.51380575 -0.41536286 1.416
0.52468461 -0.41285428 1.4148
0.53672856 -0.41266429 1.416
0.54431832 -0.41330004 1.4154
0.55470574 -0.41311431 1.416
0.56564862 -0.41310143 1.4175
0.57628781 -0.4137302 1.4189999
0.58471262 -0.41202912 1.4166
0.59543294 -0.41357288 1.4145
0.60594004 -0.41610572 1.4169999
0.61494571 -0.41311619 1.416
0.62438571 -0.41266575 1.416
0.63459718 -0.41529512 1.4164286
0.64407033 -0.41222119 1.4154
0.65486801 -0.41311032 1.4166
0.66529047 -0.41311431 1.416
0.67563146 -0.41266575 1.416
0.68509203 -0.4125697 1.4166
0.69316286 -0.41266572 1.416
0.70397186 -0.41490898 1.4164286
0.71616852 -0.41647708 1.4175
0.72436571 -0.41759139 1.419
0.73284149 -0.41626722 1.4145
0.74631006 -0.41761291 1.4145
0.75225443 -0.41717151 1.413
0.76571149 -0.41582581 1.413
0.77378577 -0.41582581 1.413
0.78993428 -0.41582581 1.413
0.79262578 -0.41582581 1.413
-0.26135522 -0.40620288 1.4169999
-0.25508213 -0.40779361 1.4189999
-0.2473114 -0.4094829 1.419
0.42793721 -0.4077515 1.413
0.46965429 -0.4077515 1.413
0.50195152 -0.4077515 1.413
0.5315572 -0.4077515 1.413
0.56654572 -0.40775147 1.413
0.57462007 -0.40775147 1.413
0.58359146 -0.40775147 1.413
-0.34287429 -0.37601998 1.411
0.2733371 -0.35290003 1.4139999
0.0043742857 0.0097361896 1.4120001
0.12487143 0.01812857 1.411
0.11055239 0.035074294 1.418
0.2505362 0.05478191 1.411
0.12278286 0.072999999 1.419
0.15908571 0.091045722 1.4119999
0.12307619 0.10081714 1.413
0.2108352 0.10006667 1.411
0.17541429 0.12661429 1.416
0.11499999 0.14403716 1.416
0.179919 0.15478569 1.416
-0.43242672 -0.45960003 1.4219999
-0.7844286 -0.4356429 1.425
-0.77221429 -0.43292859 1.425
-0.76950002 -0.43292859 1.425
-0.75457144 -0.43021429 1.425
-0.74778569 -0.43021429 1.425
-0.73557144 -0.43021429 1.425
-0.7233572 -0.43292859 1.4249998
-0.71521431 -0.43292859 1.425
-0.70978582 -0.43021429 1.425
-0.68535715 -0.43202379 1.4249998
-0.67585719 -0.43292859 1.425
-0.66092861 -0.43292859 1.425
-0.6545952 -0.43202385 1.4249998
-0.63378572 -0.43021429 1.425
-0.6066429 -0.43021429 1.425
-0.54149997 -0.43021429 1.425
-0.48314285 -0.43021429 1.425
0.75728571 -0.43021429 1.425
0.76407146 -0.43157142 1.425
-0.69485712 -0.42682144 1.425
-0.6242857 -0.42750001 1.425
-0.61478579 -0.42750001 1.425
-0.60528576 -0.42750001 1.425
-0.5944286 -0.42750001 1.425
-0.58560711 -0.42410713 1.425
-0.57339287 -0.42410713 1.425
-0.56457144 -0.42659524 1.4250001
-0.55507141 -0.42750001 1.4249998
-0.54964292 -0.42750001 1.425
-0.53200001 -0.42750001 1.425
-0.52521431 -0.4247857 1.425
-0.51435715 -0.4247857 1.4249998
-0.50485712 -0.42342854 1.425
-0.49535716 -0.42297617 1.4249998
-0.48585716 -0.42682144 1.425
-0.47500002 -0.42750001 1.425
-0.4655 -0.4256905 1.4249998
-0.45328575 -0.42342854 1.425
-0.44487149 -0.42424282 1.425
-0.43347144 -0.42369995 1.425
-0.42614287 -0.4220714 1.425
-0.41528574 -0.4247857 1.425
-0.40469998 -0.4237 1.425
-0.39560717 -0.42342857 1.425
-0.38678566 -0.42388093 1.4249998
-0.36235711 -0.4220714 1.425
-0.35511908 -0.42297617 1.4249998
-0.3487857 -0.4247857 1.425
-0.33385715 -0.4247857 1.425
-0.32526189 -0.42614284 1.4250001
-0.31567144 -0.42532858 1.425
-0.30535719 -0.42207137 1.4249998
-0.29585716 -0.4220714 1.425
-0.28454766 -0.42297617 1.4249998
-0.27414286 -0.4220714 1.425
-0.26735711 -0.4220714 1.425
-0.24428576 -0.42342857 1.425
0.054285713 -0.4220714 1.425
0.065142855 -0.4220714 1.425
0.071928583 -0.4220714 1.425
0.1099286 -0.4220714 1.425
0.12485715 -0.4220714 1.425
0.13544288 -0.42261428 1.425
0.17597616 -0.42388093 1.4249998
0.24428576 -0.42410713 1.425
0.4777143 -0.4220714 1.425
0.48178571 -0.4220714 1.425
0.51300001 -0.4220714 1.425
0.54557145 -0.4220714 1.425
0.63785714 -0.4220714 1.425
0.64192861 -0.4220714 1.425
0.6677143 -0.4220714 1.425
0.67643881 -0.4232347 1.4250001
0.68264288 -0.4220714 1.425
0.70707148 -0.42207137 1.4249998
0.71521425 -0.42388093 1.4249998
0.72498578 -0.4237 1.425
0.7355715 -0.4247857 1.425
0.74574995 -0.42410713 1.425
0.75185722 -0.42750001 1.425
0.76950002 -0.42614287 1.425
0.77425003 -0.4247857 1.425
0.7853334 -0.42342854 1.4250001
0.79586732 -0.42594895 1.4250001
-0.37185717 -0.41935721 1.425
-0.36778569 -0.41935721 1.425
-0.26247144 -0.41610003 1.425
-0.25616074 -0.4173215 1.4250001
-0.24428576 -0.41800004 1.425
0.025785714 -0.41935721 1.4249998
0.034833334 -0.41935721 1.4249998
0.044785719 -0.41935721 1.4249998
0.053833332 -0.41845241 1.4249998
0.074642867 -0.41935721 1.4249998
0.085500002 -0.41935721 1.4249998
0.095000006 -0.41935721 1.425
0.1045 -0.41935721 1.4249998
0.11535715 -0.41935721 1.425
0.1262143 -0.41935721 1.4249998
0.1370714 -0.41935721 1.425
0.1452143 -0.41935721 1.4249998
0.15471429 -0.41935721 1.425
0.16557145 -0.41935721 1.425
0.1750714 -0.41935721 1.4249998
0.18457144 -0.41935721 1.425
0.19542858 -0.41935721 1.425
0.20492859 -0.41935721 1.4249998
0.21442857 -0.41935721 1.425
0.22528575 -0.41935721 1.425
0.43428576 -0.41800004 1.425
0.44650003 -0.41935721 1.4249998
0.45464289 -0.41845241 1.4249998
0.46459523 -0.41935721 1.4249998
0.47228575 -0.41935721 1.425
0.4872143 -0.41935721 1.4249998
0.49535719 -0.41754767 1.4249998
0.50485718 -0.41935721 1.425
0.51164287 -0.41935721 1.425
0.52385712 -0.41935721 1.425
0.53471434 -0.41935721 1.425
0.54602379 -0.41935721 1.4249998
0.5523572 -0.41935721 1.425
0.56050003 -0.41935721 1.425
0.57678574 -0.41935721 1.4249998
0.58492857 -0.41845241 1.4249998
0.59307146 -0.41754767 1.4249998
0.62428576 -0.41935721 1.425
0.63378572 -0.41935721 1.425
0.64600003 -0.41935721 1.425
0.65332854 -0.41827148 1.425
0.66635722 -0.41935721 1.4249998
0.67585719 -0.41935721 1.425
0.68535715 -0.41935721 1.4249998
0.6940428 -0.41881433 1.425
0.70254755 -0.41845241 1.4249998
-0.014933331 -0.37341151 1.426
0.049120005 -0.013768572 1.425
0.20987901 0.0056866668 1.4280001
0.2367629 0.0099342875 1.426
0.092320949 0.03014476 1.4289999
0.1663571 0.076404758 1.426
0.1085 0.081328571 1.4289999
0.11354286 0.10794286 1.4220001
-0.159161 0.19855711 1.429
-0.1309381 0.1976229 1.4269999
0.19448 0.19092 1.425
0.21082281 0.2112952 1.426
-0.80335152 -0.44204861 1.437
-0.78966582 -0.44204861 1.437
-0.77214801 -0.44423828 1.437
-0.76503146 -0.44314343 1.437
-0.75818861 -0.44204861 1.437
-0.74313432 -0.44204864 1.4369999
-0.73492283 -0.44204864 1.4369999
-0.72671145 -0.44204864 1.4369999
-0.78391719 -0.43839431 1.434
-0.77200288 -0.43718004 1.433
-0.76509529 -0.43642005 1.4319998
-0.75566512 -0.43677557 1.4336667
-0.74448478 -0.43576801 1.4343334
-0.73475146 -0.43703142 1.434
-0.72306722 -0.43793574 1.4325001
-0.71358436 -0.4349815 1.434
-0.70557815 -0.43262956 1.433
-0.69496363 -0.43540531 1.4344286
-0.68356717 -0.43885285 1.4355001
-0.67466569 -0.43839431 1.434
-0.66646004 -0.43839431 1.434
-0.65280855 -0.43530005 1.4346001
-0.64407027 -0.43384519 1.4333999
-0.63485432 -0.43462491 1.4344288
-0.624722 -0.43397352 1.4335715
-0.61607724 -0.43553343 1.4361429
-0.60482734 -0.43436453 1.4335716
-0.59497774 -0.43293554 1.4322001
-0.58493334 -0.43414572 1.4350001
-0.57381046 -0.4361718 1.4356667
-0.56447268 -0.43516096 1.4343334
-0.55662346 -0.43420744 1.4346001
-0.54491144 -0.43293145 1.434
-0.5353629 -0.43293142 1.434
-0.5247103 -0.43438452 1.437
-0.51321429 -0.43110001 1.4369999
-0.50500292 -0.43110001 1.4369999
-0.49473658 -0.43402228 1.4358002
-0.48631147 -0.43354198 1.433
-0.47476718 -0.43247861 1.4325001
-0.46212098 -0.43201235 1.4369999
-0.45344496 -0.43566358 1.4362501
-0.44486889 -0.43515974 1.4343333
-0.43520567 -0.43520567 1.4370002
-0.42617312 -0.43274227 1.437
-0.41467714 -0.43110001 1.4369999
-0.40646577 -0.43383709 1.4369999
-0.39414859 -0.43383709 1.437
-0.38456857 -0.43201235 1.4369999
-0.37498859 -0.43110001 1.437
-0.36540857 -0.43110001 1.4369999
-0.35664973 -0.43328968 1.437
-0.34515372 -0.43164739 1.437
-0.33666855 -0.43383709 1.437
-0.32571998 -0.43383709 1.437
-0.30519146 -0.43110001 1.437
-0.29561141 -0.43110001 1.437
-0.26960859 -0.43110001 1.437
0.02600286 -0.43110001 1.4369999
0.035582855 -0.43110001 1.437
0.056111429 -0.43110001 1.4369999
0.065691426 -0.43110001 1.437
0.072534293 -0.43110001 1.437
0.095799997 -0.43110001 1.437
0.1081171 -0.43110001 1.437
0.1108543 -0.43110001 1.437
0.12317145 -0.43246853 1.437
0.13412 -0.43110001 1.437
0.1409629 -0.43110001 1.437
0.48310569 -0.43110001 1.437
0.49679145 -0.43110001 1.4369999
0.50500292 -0.43110001 1.4369999
0.51047719 -0.43110001 1.437
0.54606003 -0.43110001 1.437
0.55335903 -0.43201235 1.4369999
0.5898543 -0.43110001 1.437
0.64733428 -0.43110001 1.437
0.65554571 -0.43110001 1.437
0.6733371 -0.43110001 1.437
0.6842857 -0.43383709 1.437
0.6952343 -0.43178427 1.437
0.70481431 -0.43178427 1.437
0.72534287 -0.43110001 1.437
0.73492289 -0.43110001 1.4369999
0.74313432 -0.43110001 1.4369999
0.75339866 -0.43246853 1.437
0.76206577 -0.43566293 1.434
0.77845436 -0.43293142 1.434
0.78583717 -0.43323335 1.4350001
0.79565245 -0.4330858 1.433
0.80319434 -0.43543717 1.4354999
-0.69642001 -0.42930001 1.431
-0.6173743 -0.42930001 1.431
-0.58466578 -0.42793718 1.4309999
-0.57785141 -0.42793715 1.431
-0.53015149 -0.42930001 1.431
-0.52470005 -0.42929998 1.4310001
-0.51788574 -0.42930001 1.431
-0.50289434 -0.42657432 1.4310001
-0.49471721 -0.42839146 1.4310001
-0.46473432 -0.42839146 1.4310001
-0.45519432 -0.42793715 1.431
-0.44429144 -0.42930001 1.431
-0.43475151 -0.42861855 1.431
-0.42602921 -0.42766461 1.431
-0.41430864 -0.42793715 1.431
-0.40476859 -0.42929998 1.4310001
-0.39550117 -0.42875487 1.431
-0.38419881 -0.42708534 1.4327142
-0.37490168 -0.42642814 1.4344285
-0.36551833 -0.42548403 1.431
-0.35525146 -0.42748287 1.4309999
-0.34480289 -0.42657432 1.4310001
-0.33526286 -0.42861861 1.431
-0.31481999 -0.42929998 1.4310001
-0.30528003 -0.42657429 1.431
-0.29437718 -0.42657429 1.431
-0.28483716 -0.42820972 1.431
-0.27529714 -0.42793715 1.4309999
-0.26428288 -0.42617267 1.4335715
-0.2549229 -0.42539385 1.4335715
-0.24589838 -0.42657432 1.4309999
0.01505429 -0.42425716 1.437
0.024116509 -0.42554823 1.4336666
0.035651751 -0.42555207 1.4336667
0.045068573 -0.42610571 1.434
0.053960409 -0.42527226 1.4318571
0.065417141 -0.42657429 1.431
0.075630285 -0.42619944 1.4333999
0.084674291 -0.42610571 1.434
0.095447868 -0.42543501 1.4317498
0.10516 -0.42610571 1.4339999
0.11520451 -0.42591715 1.4327142
0.12538286 -0.42748284 1.4309999
0.13424143 -0.42793715 1.431
0.14539795 -0.42642656 1.4344286
0.15514898 -0.42603713 1.4344286
0.16536666 -0.42503333 1.4350001
0.17447144 -0.42503333 1.4350001
0.18529715 -0.42622286 1.43325
0.19437575 -0.42700928 1.4347501
0.20485714 -0.42610571 1.434
0.21577714 -0.42473716 1.434
0.2255038 -0.42503333 1.4350001
0.23502816 -0.42578325 1.4335715
0.24223711 -0.42836279 1.437
0.43703145 -0.4233743 1.434
0.44405559 -0.42494509 1.4336667
0.45432472 -0.42519525 1.434
0.46402916 -0.42365891 1.4321998
0.47454002 -0.42617264 1.4335715
0.48626345 -0.42619944 1.4333999
0.49541077 -0.42576501 1.4340001
0.50403595 -0.42495587 1.4316665
0.51520175 -0.42619944 1.4333999
0.52517509 -0.42642814 1.4344285
0.53490287 -0.42564952 1.434
0.54350573 -0.42710224 1.4346001
0.55500001 -0.42535338 1.4330001
0.56426084 -0.4238331 1.4335715
0.57496285 -0.42439789 1.4340001
0.58528453 -0.42642814 1.4344288
0.5945254 -0.4245356 1.4343333
0.60413086 -0.42417771 1.4358002
0.61585718 -0.42494142 1.437
0.62443829 -0.42311373 1.4321998
0.63477772 -0.42382461 1.4346001
0.64461148 -0.42678714 1.434
0.65349144 -0.42565858 1.4324999
0.66454744 -0.42538062 1.4334
0.67461431 -0.42793715 1.431
0.68551719 -0.42774248 1.4309999
0.69505721 -0.42521143 1.4309999
0.70459723 -0.42612001 1.4309999
0.71222919 -0.42820969 1.431
0.72231436 -0.42657429 1.431
0.74548292 -0.42930001 1.431
0.77819151 -0.42793715 1.431
0.78527832 -0.4287549 1.431
0.79318291 -0.42930001 1.431
-0.2494029 -0.41839719 1.431
0.02044286 -0.41567147 1.4310001
0.12645143 0.01284286 1.4369999
0.19876289 0.010773333 1.4339999
0.19465899 0.036588579 1.432
-0.058499996 0.055126667 1.4330001
-0.13080001 0.11861429 1.437
-0.086011395 0.21016671 1.432
0.12148 0.21774289 1.4380001
0.1796086 0.2460724 1.431
-0.81006002 -0.45126 1.449
-0.80316007 -0.45126 1.449
-0.79902011 -0.45126 1.449
-0.78522009 -0.45126 1.449
-0.77510005 -0.45218 1.449
-0.75210011 -0.45126 1.449
-0.74428004 -0.45218003 1.449
-0.73738009 -0.45218 1.449
-0.6361801 -0.45126 1.449
-0.81006002 -0.44850001 1.449
-0.80375731 -0.44665772 1.4466
-0.79419649 -0.44665217 1.4452499
-0.78486246 -0.44442487 1.4447143
-0.77738762 -0.44664291 1.443
-0.76377815 -0.44726193 1.4450001
-0.75526577 -0.44470218 1.4445
-0.74486291 -0.44664291 1.443
-0.73370576 -0.44738573 1.4454
-0.72241616 -0.44297811 1.443
-0.7152276 -0.44443762 1.447
-0.70586997 -0.44436002 1.449
-0.69545436 -0.44550857 1.4460001
-0.68466741 -0.44665918 1.4481429
-0.6748029 -0.44344285 1.446
-0.66531205 -0.44482189 1.447
-0.65473431 -0.4431147 1.4455713
-0.64479339 -0.44482189 1.447
-0.63474214 -0.4447374 1.4457273
-0.62547886 -0.44500518 1.4466
-0.61576205 -0.44377103 1.4464285
-0.60465485 -0.44432029 1.4468182
-0.59547001 -0.44435999 1.449
-0.58528298 -0.44344285 1.446
-0.57387334 -0.44497141 1.4450001
-0.56508571 -0.44481906 1.446
-0.55812472 -0.4423686 1.447
-0.54509997 -0.44022 1.449
-0.53619868 -0.44413069 1.4482501
-0.5247848 -0.4442834 1.4450001
-0.51511395 -0.44308287 1.4483334
-0.50554007 -0.44159999 1.449
-0.49541998 -0.44297996 1.449
-0.47518 -0.44022 1.449
-0.46506 -0.44187602 1.449
-0.45678002 -0.44436002 1.449
-0.4417533 -0.44267714 1.4450001
-0.43685237 -0.4423686 1.447
-0.42089999 -0.44022 1.449
-0.41676 -0.44022 1.449
-0.39744002 -0.44022 1.449
-0.36017999 -0.44022 1.449
-0.34086001 -0.44022 1.449
-0.33533999 -0.44022 1.449
-0.32568002 -0.44022 1.449
-0.31878 -0.44022 1.449
-0.2484 -0.44022 1.449
0.01794 -0.44022 1.449
0.024840003 -0.44114003 1.449
0.031739999 -0.44022 1.449
0.066240005 -0.44022 1.449
0.073140003 -0.44022 1.449
0.086940013 -0.44022 1.449
0.092460006 -0.44022 1.449
0.10902 -0.44022 1.449
0.2484 -0.44022 1.449
0.55752003 -0.44022 1.449
0.56717998 -0.44022 1.449
0.58649999 -0.44022 1.449
0.59616005 -0.44022 1.449
0.60582 -0.44022 1.449
0.61962008 -0.44297999 1.449
0.67482001 -0.44022 1.449
0.68448001 -0.44022 1.449
0.6982801 -0.44022 1.449
0.70517999 -0.44022 1.449
0.71208 -0.44022 1.449
0.72616863 -0.44083712 1.4450001
0.73324007 -0.44206002 1.449
0.7452001 -0.44159999 1.449
0.7548601 -0.44297996 1.449
0.76465672 -0.44390082 1.4481429
0.77464008 -0.44343999 1.449
0.78384006 -0.44022 1.449
0.79515612 -0.44297999 1.449
0.80462122 -0.44151253 1.4441999
-0.71188003 -0.43839711 1.443
-0.70500857 -0.43839708 1.443
-0.65003723 -0.43839711 1.443
-0.60880858 -0.43839711 1.443
-0.59506577 -0.43839708 1.443
-0.58269721 -0.43839711 1.443
-0.55383712 -0.43839708 1.443
-0.54834002 -0.43839711 1.443
-0.53368098 -0.43748093 1.443
-0.52429008 -0.43770999 1.443
-0.51535714 -0.43674797 1.443
-0.50573719 -0.43564859 1.443
-0.49886569 -0.43839711 1.443
-0.48512289 -0.43839708 1.443
-0.47550285 -0.43702286 1.443
-0.46450856 -0.43633574 1.443
-0.43015149 -0.43839711 1.443
-0.42396718 -0.43770999 1.443
-0.41503423 -0.43633571 1.443
-0.40472716 -0.43770996 1.443
-0.39991719 -0.43839711 1.443
-0.38342574 -0.43564859 1.443
-0.37518001 -0.43564859 1.443
-0.3669343 -0.43564859 1.443
-0.35044289 -0.43564859 1.443
-0.34357139 -0.43564859 1.443
-0.33395141 -0.43564859 1.443
-0.32020861 -0.43564859 1.443
-0.31398574 -0.43586713 1.446
-0.30434284 -0.43518001 1.446
-0.29578 -0.43746004 1.449
-0.28368855 -0.43655431 1.446
-0.27599999 -0.43746001 1.449
-0.26523718 -0.43290004 1.443
-0.25561714 -0.43290001 1.443
-0.24702001 -0.43746004 1.449
0.0096600009 -0.43331999 1.449
0.01514381 -0.43370381 1.4456668
0.023929717 -0.43546119 1.4441999
0.033933807 -0.43519711 1.44725
0.044670615 -0.43550569 1.4464285
0.054329712 -0.43654799 1.4477999
0.06459143 -0.43564859 1.443
0.075181909 -0.4350343 1.4439999
0.085247859 -0.43450075 1.44375
0.095375434 -0.43674797 1.443
0.10385674 -0.43525591 1.443
0.1156 -0.43487811 1.4450001
0.12357046 -0.43685618 1.447
0.13510427 -0.43700713 1.4475
0.14597428 -0.43517998 1.446
0.15389659 -0.434724 1.4454
0.16525714 -0.43242574 1.446
0.17442 -0.43288058 1.4466
0.18472713 -0.43493998 1.4475
0.19603999 -0.43404001 1.4445
0.20446654 -0.43550569 1.4464285
0.21494356 -0.4333393 1.4467499
0.22523524 -0.43166766 1.4450001
0.23468058 -0.4337903 1.4477999
0.24525356 -0.43540359 1.44675
0.25393745 -0.43473241 1.443
0.44588575 -0.4339619 1.4450001
0.45518079 -0.43471879 1.4464285
0.4644393 -0.43277073 1.446
0.47405201 -0.4337903 1.4477999
0.48475143 -0.43449003 1.446
0.49487829 -0.43491143 1.4441999
0.50573719 -0.43564859 1.443
0.51535708 -0.43427429 1.443
0.52441931 -0.43495214 1.4452499
0.53536218 -0.43483642 1.4460001
0.54427475 -0.43498817 1.4447143
0.55441004 -0.43472713 1.4445
0.5652619 -0.43431586 1.4456667
0.57529485 -0.43388742 1.4472001
0.58480483 -0.43512666 1.4463334
0.59445655 -0.43491143 1.4441999
0.60406178 -0.43371829 1.4448
0.61606973 -0.43414879 1.4471539
0.62565339 -0.43318382 1.447
0.63374144 -0.4333519 1.4445
0.64414501 -0.4347164 1.44675
0.6555267 -0.43442002 1.4450001
0.6651572 -0.43517998 1.446
0.67424059 -0.43582344 1.4454
0.6843943 -0.43702286 1.443
0.69584674 -0.43656477 1.443
0.70363432 -0.43564859 1.443
0.71523529 -0.43685618 1.447
0.72437149 -0.43655428 1.446
0.73475033 -0.43656057 1.4441999
0.74505931 -0.43682653 1.443
0.75539905 -0.43748096 1.443
0.76272857 -0.43702286 1.443
0.77921999 -0.43564859 1.443
0.79571152 -0.43839708 1.443
0.0096600009 -0.42918 1.449
0.016491432 -0.42534149 1.443
0.3763676 -0.42499721 1.4469999
0.60880858 -0.42740291 1.443
0.61293137 -0.42740291 1.443
0.62529999 -0.42740291 1.443
0.12827334 -0.37935722 1.442
-0.55411339 -0.34366572 1.4399999
-0.00514571 -0.032933302 1.4469999
0.045766667 -0.0090771411 1.4449999
-0.036965717 0.008464762 1.446
0.1988495 0.03814286 1.449
0.15402381 0.068412378 1.443
-0.046227623 0.11493333 1.447
-0.019028567 0.1233467 1.449
-0.1261248 0.13200291 1.443
-0.1657991 0.16512001 1.449
-0.071386673 0.1657086 1.4469999
0.24327719 0.1788943 1.449
0.19815999 0.19719139 1.443
0.12605906 0.2175343 1.4449999
-0.065228596 0.2264286 1.449
0.21538571 0.23477429 1.4469999
-0.80787152 -0.46144289 1.455
-0.81202859 -0.45451432 1.455
-0.80510002 -0.45590004 1.455
-0.79539996 -0.45451432 1.455
-0.78754765 -0.45682383 1.455
-0.77461427 -0.45497623 1.455
-0.76352859 -0.45312861 1.455
-0.75521421 -0.45497623 1.455
-0.74759293 -0.45797855 1.455
-0.73338926 -0.45416787 1.455
-0.72507501 -0.453475 1.455
-0.71530569 -0.45312858 1.455
-0.70463574 -0.45243573 1.455
-0.69770718 -0.45312858 1.455
-0.68315709 -0.45035711 1.455
-0.66421908 -0.45174289 1.455
-0.65599716 -0.4514657 1.455
-0.64602005 -0.45368284 1.455
-0.63465714 -0.45451432 1.455
